# .PCD v0.7 - Point Cloud Data file format
VERSION 0.7
FIELDS x y z
SIZE 4 4 4
TYPE F F F
COUNT 1 1 1
WIDTH 1408
HEIGHT 1
VIEWPOINT 0 0 0 1 0 0 0
POINTS 1408
DATA ascii
-3.0020547 -2.8190696 -0.16881633
-1.2688044 -2.8075094 -0.15478492
-1.2165132 -2.8102033 -0.16187644
-1.1556561 -2.8381016 -0.17651939
-0.85010493 -2.8435867 -0.17328775
-0.80473483 -2.8196621 -0.15776837
-0.7956481 -2.8069773 -0.19206047
-0.73187959 -2.8273437 -0.18976438
-0.62489283 -2.8092139 -0.16012502
-0.5229252 -2.8235879 -0.18745172
-0.48216113 -2.8305521 -0.15592337
-0.39427873 -2.8239274 -0.16968173
-3.0194824 -2.7627463 -0.15404201
-1.277884 -2.7564743 -0.16163385
-1.2367151 -2.7734063 -0.16237098
-0.7529825 -2.7907741 -0.17894483
-0.70613718 -2.7712679 -0.16184109
-0.65601349 -2.775032 -0.15939492
-0.6213026 -2.7679384 -0.16289186
-0.57941806 -2.7836139 -0.16914593
-0.51715064 -2.7824411 -0.15624869
-0.4947136 -2.7584398 -0.16615927
-0.32556492 -2.7627819 -0.1666044
-3.006984 -2.7090683 -0.18060696
-1.3183706 -2.7299113 -0.18827486
-1.2744751 -2.7435825 -0.18923867
-0.42133963 -2.7276425 -0.19460779
-0.29953855 -2.732475 -0.19865441
-2.9987407 -2.6501939 -0.16373491
-1.3642623 -2.6791024 -0.19141603
-1.3245201 -2.6876588 -0.19637322
-2.9489274 -2.567482 -0.17086995
3.1050172 -2.533515 -0.15496111
-2.9722815 -2.464654 -0.16134149
-2.9359622 -2.4740946 -0.16242939
3.1457882 -2.4758034 -0.15739131
-2.9812479 -2.4180717 -0.16882491
-2.9180524 -2.4282091 -0.18376118
2.9385564 -2.4002049 -0.19562221
-2.9868064 -2.3820581 -0.16451074
2.9719932 -2.3590269 -0.18894529
-2.9783447 -2.3402286 -0.16602361
2.9580417 -2.3157225 -0.16890287
-3.0238461 -2.2528105 -0.18991548
-2.9752564 -2.2137437 -0.16642186
-2.9915738 -2.1625006 -0.17030641
-2.9734051 -2.1114593 -0.16173039
-2.923784 -2.0539339 -0.15772158
-2.8786869 -2.068934 -0.1601342
-2.9388165 -2.0083449 -0.15582345
-0.21395731 -2.0140901 -0.18359298
-0.1647287 -2.0335383 -0.18652493
-0.1198138 -2.0218747 -0.17751056
-2.9591596 -1.9816196 -0.17872989
-2.9310553 -1.9768767 -0.19431394
-0.14311308 -1.9789023 -0.19913101
-2.898737 -1.9007514 -0.1523722
-2.9053638 -1.8762462 -0.17605454
-2.8867288 -1.8529289 -0.17955095
-2.9371052 -1.8357216 -0.19787407
-2.8827388 -1.7854035 -0.16085887
-2.8106723 -1.7778516 -0.18293643
-2.7982378 -1.7139345 -0.18005669
-2.916167 -1.6777867 -0.17089623
-2.8367152 -1.6681877 -0.18562484
-2.7729721 -1.6765118 -0.16160887
-2.8908772 -1.6259946 -0.19574594
-2.7990155 -1.6184971 -0.19146246
-2.7937098 -1.577455 -0.19314104
-2.888875 -1.5043538 -0.1845482
-2.7762923 -1.5378094 -0.19000953
-2.9335699 -1.4922068 -0.16911826
-2.8880444 -1.4840193 -0.15964398
-2.830281 -1.484197 -0.17658244
-2.7530682 -1.4755464 -0.16863912
-2.7299547 -1.4984765 -0.16960031
-2.8900747 -1.4391489 -0.16522408
-2.9863734 -1.3516889 -0.16259414
-2.8888407 -1.394923 -0.16158676
-3.0175021 -1.3281406 -0.178253
-2.9208364 -1.3117691 -0.18312979
-2.8694606 -1.3120217 -0.17840564
-2.7980433 -1.3102455 -0.17154169
-2.9536309 -1.2997019 -0.19491404
-2.8823204 -1.2790649 -0.18309352
-2.8411701 -1.2759955 -0.19126284
-0.061968099 -0.33582485 -0.19745758
-0.11811632 -0.25441274 -0.18413946
-0.079244718 -0.25314209 -0.18881431
0.05345355 -0.25661236 -0.18448767
2.6430445 -5.655066 -0.13708648
2.7420371 -5.6246395 -0.11092803
2.6359282 -5.562602 -0.12052664
2.6787047 -5.5732336 -0.11385578
2.7642584 -5.5944948 -0.10051402
2.876545 -5.51402 -0.10649262
-3.1196744 -5.4320831 -0.11578751
-3.1182842 -5.3509288 -0.11406016
-3.1722403 -5.3247294 -0.13022667
2.7174997 -5.3464499 -0.11388552
-3.3224447 -5.2641959 -0.14634991
-3.2763255 -5.2627592 -0.14292455
-3.1832738 -5.2598438 -0.10647488
-3.3296359 -5.2041855 -0.13820887
-3.4367709 -5.1973047 -0.14469576
-3.2038534 -5.196363 -0.11077237
-3.1733747 -5.1895113 -0.13279372
-2.9648266 -5.1928186 -0.11110926
-3.3364952 -5.1452403 -0.13019824
-3.1879098 -5.117445 -0.12726402
-3.0991857 -5.1184845 -0.1097815
-3.0093336 -5.115685 -0.10310721
-2.9509192 -5.1311727 -0.13352302
2.7167461 -5.1282787 -0.12871361
-3.4066141 -5.0516949 -0.1216197
-3.1792202 -5.0681725 -0.14725602
-3.0098224 -5.069005 -0.11982688
-2.9622469 -5.0777764 -0.13175063
2.5875037 -5.0895858 -0.12095015
2.6971405 -5.0637331 -0.13342568
-3.188153 -5.0329471 -0.10729456
-3.0115824 -5.0070524 -0.12107658
2.6262946 -5.0247579 -0.13971303
2.7160211 -5.0248375 -0.11648224
2.7765718 -5.0017328 -0.10282747
2.80673 -5.0199614 -0.10696197
-3.063395 -4.9666777 -0.10412335
2.7219477 -4.9640627 -0.1092093
-3.1532264 -4.9122858 -0.1047262
-3.1443777 -4.9457655 -0.1437037
2.7497575 -4.9384604 -0.10223126
2.753516 -4.9357867 -0.10798383
2.8937311 -4.909976 -0.13577852
-3.0944734 -4.8737683 -0.12659121
2.6835189 -4.8767719 -0.13883553
2.7250459 -4.8693552 -0.13183048
2.817023 -4.8523088 -0.11904651
-3.2400389 -4.8474822 -0.1022265
-3.1307993 -4.8200111 -0.12303486
2.613142 -4.8423429 -0.14092734
2.720993 -4.801991 -0.14700614
2.7702775 -4.8338943 -0.11985537
-3.1502607 -4.7817788 -0.10194874
-3.0877571 -4.7778525 -0.13621867
-2.9252591 -4.7846422 -0.14050651
2.5813775 -4.7741561 -0.13454092
2.6134241 -4.7597876 -0.11526465
2.6679759 -4.7581797 -0.12473869
2.7465706 -4.7595806 -0.11894059
2.7843308 -4.7699561 -0.10182798
2.8136764 -4.7932172 -0.12682211
-3.2380466 -4.7191048 -0.11313939
-3.1592028 -4.7346292 -0.10094571
-3.1247635 -4.7410297 -0.12544483
2.6608615 -4.7247686 -0.11828101
2.7379127 -4.7378254 -0.12055123
2.7626228 -4.7165241 -0.10661572
-3.0799751 -4.6690207 -0.11517537
-3.020787 -4.6624804 -0.11806476
-2.9507844 -4.6694226 -0.12662637
-2.9165883 -4.6905928 -0.13055241
2.6918809 -4.6652393 -0.14994869
2.7305532 -4.6800442 -0.11765738
2.7963295 -4.6926045 -0.10978162
-3.1101637 -4.626585 -0.11641866
-3.0654395 -4.6103263 -0.11401123
-3.0373416 -4.6125517 -0.12789392
-2.9906344 -4.620533 -0.11938357
-2.8431525 -4.6258001 -0.13535707
1.4614292 -4.6292686 -0.10717213
2.5508869 -4.6312451 -0.1496532
2.6736746 -4.6086621 -0.13717973
2.7094011 -4.6296339 -0.14345171
2.7652774 -4.6464825 -0.11695635
-3.0761971 -4.5561781 -0.128766
-3.0218925 -4.58775 -0.14889403
-2.9599071 -4.5980334 -0.14571188
-2.9281712 -4.5738683 -0.10605411
-2.8842041 -4.5696344 -0.13599621
-2.8441331 -4.5665731 -0.13162786
1.4464694 -4.564013 -0.136814
2.6966884 -4.5772619 -0.13140655
2.7400885 -4.5837488 -0.1312525
2.7699602 -4.5617061 -0.12816155
2.8102236 -4.5990219 -0.14322305
-3.1502953 -4.5448976 -0.10360789
-3.1363857 -4.5462141 -0.10908461
-3.0642836 -4.5244303 -0.12102002
-3.0480499 -4.5360084 -0.11668515
-2.951834 -4.524488 -0.14472163
2.7278974 -4.5347471 -0.12604016
2.783442 -4.5013628 -0.10392356
2.8404987 -4.5469718 -0.10636473
-3.065486 -4.466393 -0.11360507
-3.0291333 -4.4635739 -0.11493486
-2.9803419 -4.4874792 -0.12806427
-2.842401 -4.4915257 -0.13353634
-2.7756546 -4.4912834 -0.13349831
2.7478731 -4.4864955 -0.10019445
2.7693133 -4.4557285 -0.10246372
2.8229618 -4.4903569 -0.13673282
-3.1116428 -4.4048915 -0.11011262
-3.0713866 -4.4204264 -0.108794
-3.0258203 -4.4266219 -0.1177237
1.4419408 -4.4261599 -0.11212623
2.7869313 -4.4403868 -0.12847558
2.8170972 -4.4235578 -0.11091918
-3.0630317 -4.3794866 -0.12574172
-3.0269365 -4.3810191 -0.1245833
-2.9802685 -4.3842583 -0.11816949
1.4623259 -4.3681912 -0.10160577
2.7947643 -4.3825917 -0.10623825
2.8163712 -4.3824611 -0.1191955
-3.0322223 -4.3216534 -0.11361262
1.4577415 -4.3367171 -0.13495016
2.7805784 -4.3155289 -0.1204263
2.8305209 -4.3227954 -0.12365341
-3.1099546 -4.2635722 -0.10311019
-3.0875411 -4.2857156 -0.10939091
-3.037647 -4.2790227 -0.1207469
-2.9833133 -4.2704539 -0.10605133
-2.9413218 -4.2850618 -0.12935054
2.7800283 -4.2801151 -0.10943846
2.8268504 -4.2696056 -0.10990759
-3.1184671 -4.2240305 -0.10197628
-3.0263224 -4.2408895 -0.13161188
-2.9925559 -4.2226648 -0.13665688
-2.9185441 -4.2339296 -0.13388407
2.6292405 -4.227984 -0.13693947
2.6717834 -4.2346144 -0.13967931
2.7046454 -4.2197714 -0.13743508
2.7792311 -4.2261009 -0.13466698
-3.1145616 -4.1854815 -0.11738193
-3.0544651 -4.1767077 -0.10719347
-3.0284872 -4.1888852 -0.12234279
-2.9885364 -4.1717448 -0.11568315
-2.9362092 -4.1874933 -0.11283159
0.95042181 -4.1628232 -0.13083327
2.7501323 -4.1957083 -0.10726166
2.8254595 -4.1997099 -0.10051668
-3.0839434 -4.1299181 -0.11997393
-3.022264 -4.1189456 -0.14775789
-2.975965 -4.1221371 -0.11645673
-2.9400671 -4.1396141 -0.12557939
2.7680349 -4.1228809 -0.11956698
2.8503311 -4.1336799 -0.12683475
-3.0693529 -4.0780153 -0.11781678
-3.0165825 -4.0941415 -0.1162796
-2.9848759 -4.0688882 -0.12715197
-2.9438934 -4.0818734 -0.14033771
0.93537021 -4.072155 -0.14592743
2.8280454 -4.0915227 -0.11247563
2.8647463 -4.0745916 -0.11177045
-3.0845046 -4.037044 -0.1006496
-3.027173 -4.013299 -0.11715722
-2.9854441 -4.0283308 -0.13391523
-2.9349074 -4.0334091 -0.12725195
0.7287544 -4.0333409 -0.11905515
2.8100047 -4.0216722 -0.13070142
2.8757095 -4.0122023 -0.11183035
-3.069032 -3.9594669 -0.12967265
-3.0231647 -3.9715264 -0.12562408
-2.9832797 -3.990072 -0.13193274
-2.9333923 -3.9709034 -0.13299727
-2.8808625 -3.9950883 -0.13466775
-3.2219708 -3.9005108 -0.14149439
-3.0728414 -3.9175177 -0.11875752
-3.0195627 -3.9133351 -0.11047403
-2.9762895 -3.924181 -0.13129041
-2.9389503 -3.9477284 -0.14550245
0.63959211 -3.9473214 -0.10266066
0.875664 -3.9257307 -0.14823949
2.8222156 -3.9235296 -0.11802804
2.8641324 -3.9164624 -0.10057807
-3.2634425 -3.8672531 -0.13788593
-3.1248894 -3.8616862 -0.12677366
-3.0697734 -3.8693612 -0.1292932
-3.026835 -3.8726623 -0.13693872
-2.9638097 -3.8828044 -0.1296702
0.63165104 -3.884125 -0.12579429
0.83722782 -3.8920357 -0.14192295
0.85751379 -3.8817115 -0.10385227
2.2199409 -3.8543422 -0.14640963
2.8484111 -3.8563831 -0.12301552
2.8569398 -3.8512149 -0.10451388
2.9040167 -3.8552239 -0.12845159
-3.1061068 -3.8250756 -0.1083885
-3.0798793 -3.8357079 -0.12761658
-3.0304124 -3.8228002 -0.11939576
-2.9762785 -3.8227932 -0.1269948
-2.936924 -3.804481 -0.10602689
-2.8989112 -3.8195138 -0.10849774
2.3012555 -3.8293405 -0.1485337
2.8157175 -3.8304725 -0.10614622
2.8807955 -3.8278711 -0.11766315
2.9004884 -3.8157477 -0.11238122
-3.2198246 -3.7581549 -0.14672828
-3.1199696 -3.7832229 -0.12786438
-3.0845449 -3.7727408 -0.13158442
-3.0218472 -3.7822032 -0.13451558
-2.977982 -3.7829242 -0.13039443
0.66110289 -3.7527244 -0.11008811
0.78363144 -3.7915492 -0.11963642
1.3748747 -3.7750487 -0.12289703
2.2965729 -3.7685122 -0.14371538
2.864502 -3.7756052 -0.12540388
-3.1123474 -3.7310455 -0.13414292
-3.0907793 -3.718677 -0.14315128
-3.0158346 -3.7437434 -0.13570596
-2.987283 -3.7151577 -0.10349321
0.58697826 -3.7274668 -0.12648737
0.6201055 -3.7032337 -0.11789942
0.91289175 -3.7009864 -0.13428271
3.1002176 -3.707936 -0.1366632
-3.1799033 -3.6714525 -0.12648845
-3.1321993 -3.6688828 -0.12961331
-3.0833187 -3.6819012 -0.13164379
-3.0208068 -3.6725588 -0.13312571
0.72882777 -3.6500549 -0.11994529
0.94318956 -3.678417 -0.12611616
1.0489819 -3.6673889 -0.12232661
1.262745 -3.6566677 -0.11888731
2.2728968 -3.6780705 -0.13572729
2.9897633 -3.6503203 -0.13454211
3.0718179 -3.6809042 -0.12137532
3.1235592 -3.6981196 -0.13630152
-3.4897206 -3.6171744 -0.13224113
-3.1188955 -3.6368604 -0.11419868
-3.0651832 -3.6158295 -0.11713213
-3.0419791 -3.6271014 -0.12028195
0.73243612 -3.63641 -0.14916193
0.97002506 -3.6454537 -0.11415005
1.0027331 -3.6342189 -0.11012411
1.1866899 -3.6460679 -0.11485267
1.2228006 -3.6461701 -0.11496973
2.2964427 -3.6423562 -0.13419473
2.3321292 -3.6273868 -0.13482559
2.8844879 -3.6201968 -0.12198949
2.9247632 -3.6119633 -0.12438223
2.9648428 -3.6205864 -0.11518723
3.0278206 -3.629576 -0.11290169
3.0729623 -3.6235905 -0.11700937
-3.5235274 -3.5954595 -0.12401879
-3.1039214 -3.5677853 -0.14006543
-3.0687175 -3.5696888 -0.11470002
-3.0285778 -3.5649099 -0.13722774
2.3264623 -3.5716953 -0.13034606
2.4194076 -3.5788665 -0.13546979
2.8349051 -3.5705435 -0.1272822
2.8745284 -3.5855808 -0.11497597
2.9339645 -3.581892 -0.123101
2.9675896 -3.574852 -0.11436709
3.0151925 -3.5942779 -0.12188631
3.0628772 -3.5776353 -0.11155838
3.1359031 -3.5685561 -0.13153136
-3.3642685 -3.5498526 -0.11655855
-3.2989049 -3.5178542 -0.10294712
-3.111922 -3.5178344 -0.10998201
-3.0625305 -3.5121031 -0.11153968
-3.0200489 -3.5220163 -0.12737
-2.9724655 -3.5306406 -0.14084828
2.1305943 -3.5062027 -0.14539438
2.3333054 -3.5367775 -0.12805045
2.3582194 -3.5303595 -0.12879467
3.0742433 -3.5456364 -0.10302222
3.1043622 -3.5456133 -0.10302138
-3.1089382 -3.4782329 -0.11517131
-3.0809784 -3.4718297 -0.13246684
-3.0243435 -3.4797554 -0.13020639
-2.9789362 -3.4621201 -0.11962648
2.0611401 -3.4623907 -0.13833475
2.1698062 -3.474932 -0.14467466
2.2222369 -3.4665055 -0.14651734
2.2612553 -3.4601624 -0.1478824
2.9811378 -3.4622357 -0.11062396
3.0796399 -3.4707873 -0.10453486
-3.0954242 -3.4121575 -0.14198864
-3.0271387 -3.4152699 -0.13280648
-2.9882412 -3.4244797 -0.13241912
1.3956114 -3.4230964 -0.1248095
-3.0970254 -3.3934066 -0.10758865
-3.0323055 -3.3685107 -0.1193712
-2.9753017 -3.3697138 -0.12709177
1.4044385 -3.3584075 -0.1175226
2.980644 -3.3956511 -0.12526333
3.0103316 -3.3669348 -0.13189042
3.1963668 -3.3707261 -0.12819362
-3.1101022 -3.3102019 -0.14105618
-3.0661643 -3.3172603 -0.12835373
-3.0214767 -3.3171492 -0.12380781
-2.9826117 -3.3385406 -0.12096162
1.4212408 -3.3211777 -0.10279894
3.1232297 -3.3262677 -0.11787879
-3.4402921 -3.2554336 -0.10119462
-3.0623317 -3.2772384 -0.10961339
-3.0404301 -3.2772443 -0.11950111
-2.9932141 -3.2840109 -0.13373637
3.152266 -3.2640035 -0.10586166
-3.4126234 -3.2138212 -0.11897266
-3.0661201 -3.2213459 -0.11967915
-3.0433841 -3.2443733 -0.12477668
-2.9973278 -3.2192874 -0.12464371
3.0174007 -3.2284138 -0.10234499
-3.4098082 -3.1785436 -0.10236907
-3.0270128 -3.1717732 -0.12835531
-2.9887588 -3.1723425 -0.13248412
0.54048079 -3.1685131 -0.12384689
3.1627231 -3.1743667 -0.11718535
3.2043405 -3.1837237 -0.12118185
-3.0215201 -3.1102109 -0.13370174
-2.9967937 -3.1205869 -0.11833429
0.56278682 -3.1238585 -0.13868117
-3.0683005 -3.0649891 -0.12340814
-3.0123017 -3.0765903 -0.10770472
-2.981513 -3.0863008 -0.11891389
0.49717838 -3.0665011 -0.11111987
0.57831997 -3.0782373 -0.12349236
3.2084057 -3.093452 -0.10063612
-3.1080775 -3.012465 -0.1363436
-3.0981719 -3.0282812 -0.10445118
-3.0123119 -3.0497766 -0.13415635
-2.9784002 -3.0245929 -0.1251588
0.49893206 -3.033597 -0.14493108
-3.0310774 -2.9853425 -0.10602021
-2.9869847 -2.9749508 -0.12737685
-2.9305499 -2.9802232 -0.11366618
-1.0241942 -2.963593 -0.14811647
-3.0858259 -2.9313779 -0.11788476
-3.031801 -2.9275081 -0.12213919
-2.9914062 -2.936377 -0.12150949
-2.9245138 -2.9292526 -0.14620233
3.3046954 -2.9093223 -0.10518754
-3.0737302 -2.8792515 -0.11942657
-3.0290971 -2.8704185 -0.12677252
-2.9621372 -2.8762283 -0.11303818
3.2894013 -2.8614638 -0.12067163
-3.0217333 -2.8265696 -0.12606704
-2.9540346 -2.8182044 -0.12405866
-1.2012048 -2.8191373 -0.14319289
-1.1755724 -2.8300662 -0.14632082
-0.75597554 -2.8161733 -0.14379215
-0.7461822 -2.8161035 -0.1406939
-0.65528607 -2.8061757 -0.13411319
-0.62695271 -2.8138788 -0.13119841
-0.59683013 -2.8081224 -0.12720072
3.2712595 -2.8137498 -0.10315251
-3.0135989 -2.7633357 -0.11705339
-2.9294651 -2.7641952 -0.12682104
-1.2400314 -2.7903244 -0.1373533
-0.70701027 -2.7667439 -0.12260759
-0.66967809 -2.7659411 -0.13471484
-0.5617581 -2.7756143 -0.14460814
-0.51981175 -2.780889 -0.13557768
-0.46158075 -2.7734237 -0.14722162
3.260448 -2.7852302 -0.10453377
-3.0338259 -2.7124655 -0.13479292
-2.9236307 -2.7141383 -0.11567676
-0.41706249 -2.7427387 -0.1461668
3.1254821 -2.7181787 -0.13082886
3.1663814 -2.7495041 -0.11110947
3.2399905 -2.7377596 -0.10716069
-3.0188057 -2.6737685 -0.13972342
1.2118005 -2.6727548 -0.10507488
3.1012373 -2.6627226 -0.10319555
-3.0028112 -2.6119902 -0.10697603
-2.9901421 -2.6063411 -0.10237646
3.0822821 -2.6012506 -0.10511518
3.159739 -2.6021783 -0.11929452
3.0981393 -2.5803065 -0.10044003
3.1537921 -2.5670743 -0.13571215
-2.9232035 -2.5347528 -0.1266036
3.1478655 -2.5192611 -0.14604163
-3.0015397 -2.4847431 -0.12338164
-2.9807839 -2.4778042 -0.11461435
-2.9220607 -2.4820991 -0.1387853
-3.0228362 -2.4274509 -0.14604545
-2.9714382 -2.409708 -0.12252667
3.1731093 -2.4481435 -0.10036051
-3.0609407 -2.3781857 -0.13045971
-3.0264611 -2.3839424 -0.12718043
-2.9658458 -2.3956442 -0.12975326
3.1284893 -2.3969455 -0.11767662
-2.9858553 -2.3259172 -0.1216323
3.1430788 -2.3462646 -0.10561073
-2.9796653 -2.2685876 -0.11234456
3.1469712 -2.2742913 -0.10774046
-2.9751639 -2.2385278 -0.12017554
-2.9470899 -2.2345138 -0.13480711
3.1791472 -2.215014 -0.1021601
-3.0263526 -2.1700544 -0.11035991
-2.98209 -2.1869056 -0.12327506
-2.9418716 -2.1914148 -0.12623474
3.1637974 -2.1631606 -0.11680949
-2.987556 -2.1290174 -0.11252023
-2.8991179 -2.121213 -0.12996203
-0.40579498 -2.1283631 -0.13051975
-0.38467023 -2.1275263 -0.12241693
-0.27325708 -2.1162086 -0.11605275
3.199645 -2.108892 -0.1031208
-3.0167325 -2.0562644 -0.10506541
-2.9714105 -2.0824387 -0.10988748
-2.9138498 -2.0675874 -0.11612415
-0.35091707 -2.0947235 -0.13181296
-0.33658421 -2.073729 -0.12141477
-0.29675055 -2.0793293 -0.10640359
-2.9254706 -2.0273807 -0.14087686
-0.21425942 -2.008307 -0.13669401
-0.1642994 -2.0123453 -0.13577941
3.1345539 -2.0045879 -0.11520755
-2.9843798 -1.9609274 -0.10199845
-2.9291925 -1.9731463 -0.12283929
-2.885566 -1.9913929 -0.12395704
3.1505678 -1.9738758 -0.10927784
3.2386985 -1.9976633 -0.10130787
-2.9553678 -1.9177356 -0.1051712
-2.9103012 -1.9205638 -0.13479471
3.1719017 -1.9338109 -0.10154665
3.2545414 -1.9490483 -0.11482656
-2.9462347 -1.8791327 -0.10121763
-2.8781941 -1.8737979 -0.12005793
3.2557201 -1.8972507 -0.11357021
-2.9253106 -1.840775 -0.14311129
-2.868113 -1.8319257 -0.1289891
3.2437239 -1.8495553 -0.11296666
-2.8414862 -1.7577744 -0.11702359
3.2402143 -1.7790849 -0.11565882
3.2644083 -1.764968 -0.11430848
-2.9140584 -1.7295464 -0.10379732
-2.8799386 -1.7226 -0.12561348
3.2437532 -1.7036986 -0.10868543
3.2700825 -1.7344996 -0.1225706
-2.9244678 -1.6750164 -0.11978793
-2.8455522 -1.6569746 -0.10190868
-2.7760444 -1.6716449 -0.13043553
-2.7368925 -1.6549761 -0.14456946
3.2240529 -1.6691422 -0.10089564
3.2941027 -1.6800784 -0.1392535
3.3255243 -1.6938503 -0.13169938
-2.9290581 -1.6335344 -0.11642444
-2.8842266 -1.6434059 -0.12496567
-2.8390479 -1.6243799 -0.10555863
-2.7882547 -1.6238636 -0.1339114
-2.916754 -1.575496 -0.12429357
-2.7324138 -1.5693798 -0.11233437
-2.9457078 -1.5211697 -0.12589467
-2.6827409 -1.5175464 -0.1029042
-2.9760635 -1.4666086 -0.11842239
-2.7994604 -1.481075 -0.13722682
-2.7111392 -1.4849764 -0.13023096
-2.6768055 -1.4913536 -0.11023843
-2.9833417 -1.4360406 -0.12387896
-2.8779366 -1.4243163 -0.1157094
-2.8082056 -1.4477191 -0.11408716
-3.0396748 -1.3615034 -0.1255613
-2.9883199 -1.3562127 -0.11029661
-2.9440765 -1.3915064 -0.12558109
-2.8639898 -1.3906314 -0.10394937
-2.9347239 -1.335777 -0.11420378
-2.8754652 -1.3365811 -0.12364831
-2.8854823 -1.2830975 -0.12932891
-2.8648958 -1.2310376 -0.12401745
-2.8401108 -1.1743951 -0.12247878
-2.8697529 -1.1340146 -0.10520005
-2.8324332 -1.0631915 -0.10325056
-0.11682949 -0.31660798 -0.12659834
-0.07496915 -0.31585506 -0.13119176
-0.27240425 -0.26013398 -0.14431876
2.8434567 -5.7644663 -0.070476949
2.8428555 -5.688869 -0.056573749
2.8925891 -5.6263881 -0.080501556
2.9353662 -5.6370192 -0.073830545
2.9823961 -5.6217012 -0.06123516
2.7858574 -5.5641966 -0.090197086
2.8283226 -5.5747499 -0.083574891
2.9337878 -5.5195885 -0.095798567
-3.1196601 -5.4518442 -0.074331045
2.6535373 -5.4978957 -0.074014187
-3.1412885 -5.4100351 -0.073763132
2.7831452 -5.4054885 -0.07358551
2.9262018 -5.4092288 -0.074837863
-3.1518333 -5.3506079 -0.072955847
2.7747722 -5.3695545 -0.065988183
2.83061 -5.365829 -0.073045731
-3.1732194 -5.3110008 -0.072417498
2.8333194 -5.3108172 -0.088331342
2.8877704 -5.3459725 -0.072774172
-3.1738181 -5.28828 -0.056438982
2.7576752 -5.2517724 -0.061178207
2.9008517 -5.2876277 -0.071980715
-3.2177143 -5.2242551 -0.090617061
-3.1512773 -5.2163029 -0.058123112
-3.1368873 -5.2012086 -0.081821442
2.8367906 -5.2323442 -0.088602781
-3.2484555 -5.1657915 -0.084818363
-3.1839359 -5.1850209 -0.074707665
-2.9794412 -5.1701183 -0.092563137
-2.9439964 -5.1757522 -0.064847708
2.7513466 -5.1581135 -0.057734966
2.8175182 -5.1727314 -0.072741851
2.8734932 -5.1835718 -0.069814622
-3.3897669 -5.1118531 -0.087380648
-3.3451736 -5.1104641 -0.084067583
-3.2559872 -5.1076856 -0.077442884
-3.2076793 -5.1424036 -0.094706655
-2.9644074 -5.1142855 -0.099769592
2.8155842 -5.1101289 -0.077667534
-3.3962674 -5.0558763 -0.080221891
-3.2646222 -5.0625854 -0.051443338
-3.156564 -5.0688415 -0.069124699
-3.13469 -5.0661736 -0.052449346
-2.9834671 -5.0975289 -0.073298946
-2.9438338 -5.0979586 -0.054254532
2.7768345 -5.0907946 -0.076768339
2.8653207 -5.0892487 -0.070018113
-3.1931949 -5.0494056 -0.090992212
-2.9781225 -5.0243568 -0.085697025
2.7493076 -5.0282779 -0.078981876
2.783833 -5.011137 -0.064734533
2.8017187 -5.021524 -0.075511038
-3.1547782 -4.9983969 -0.068166852
-3.1317153 -4.9854465 -0.063592911
2.6100516 -4.9544029 -0.084051728
2.7796981 -4.967844 -0.051510431
2.8051558 -4.9625182 -0.080414176
-3.1644826 -4.9477739 -0.067479253
-3.1367526 -4.9248071 -0.082498312
-3.0109015 -4.9386806 -0.09658432
2.6550529 -4.9240985 -0.085129023
2.7183692 -4.9289837 -0.08861959
2.7875717 -4.9191809 -0.084709711
2.8171153 -4.9381714 -0.073461711
2.8877072 -4.9105783 -0.09811005
-3.1519263 -4.8641133 -0.0663414
2.7690248 -4.8697987 -0.079874367
2.8264506 -4.8709979 -0.063160762
-3.1639881 -4.8379393 -0.091898441
-3.1288176 -4.8373604 -0.08142662
-3.0810177 -4.8485489 -0.066540003
2.7837956 -4.8267913 -0.073220871
2.8097904 -4.8117294 -0.084344625
-3.2495599 -4.7563028 -0.077168226
-3.1720185 -4.7754402 -0.069787562
-3.0910804 -4.7581453 -0.081633091
2.7381105 -4.7796326 -0.064971447
2.7833655 -4.7612104 -0.079586983
-3.1784563 -4.7210469 -0.064396501
-3.1096492 -4.732935 -0.079443038
-3.0543265 -4.7295036 -0.07676065
-2.9368222 -4.7420387 -0.090811849
2.7381811 -4.7184467 -0.077029467
2.7879739 -4.7398567 -0.064774334
2.8169568 -4.7010369 -0.064007401
-3.1725113 -4.6745424 -0.081769705
-3.1140742 -4.6777377 -0.077516317
-3.0424883 -4.6560893 -0.054850698
-2.9795098 -4.6785989 -0.078938007
-2.9496825 -4.6852765 -0.084448934
2.7337368 -4.6737895 -0.069245793
2.7676795 -4.6661291 -0.066245921
2.8291836 -4.6559005 -0.063393354
-3.1283655 -4.6458635 -0.077558994
-3.0809414 -4.6271267 -0.062115341
-3.0289104 -4.6197715 -0.082688414
-2.989542 -4.6362419 -0.077592611
-2.837707 -4.6090469 -0.09272407
2.7347283 -4.6315436 -0.087379463
2.7701063 -4.6218262 -0.059787147
2.8019266 -4.629014 -0.099782705
2.8585815 -4.6049175 -0.075657129
-3.1911874 -4.5816059 -0.074167252
-3.1274662 -4.5841293 -0.079108119
-3.0903032 -4.5859599 -0.074571885
-2.8674817 -4.56353 -0.083140187
2.7297258 -4.582962 -0.092840254
2.7738078 -4.571126 -0.08960548
2.8262057 -4.5943208 -0.057758391
-3.1059933 -4.5008588 -0.061401606
-3.0903478 -4.5203962 -0.085139275
-3.0298839 -4.5453386 -0.058561325
-2.9854789 -4.5263567 -0.098722339
2.7371974 -4.5247765 -0.071936168
2.7747986 -4.520628 -0.073600471
2.8237829 -4.5304594 -0.074178159
2.8624835 -4.5220494 -0.06135736
-3.1182585 -4.4912968 -0.076535255
-3.0783856 -4.4698353 -0.065555066
-2.9795332 -4.468061 -0.072810411
1.4467309 -4.4589996 -0.078243613
1.5739632 -4.4757199 -0.080313444
2.7248659 -4.4682388 -0.082115412
2.7800722 -4.4832621 -0.076360628
2.8220429 -4.4710169 -0.084869772
2.9054351 -4.4534497 -0.052589893
-3.128376 -4.4381247 -0.06469655
-3.0894251 -4.4319601 -0.078651488
1.4771001 -4.4296031 -0.073047757
1.517392 -4.4300299 -0.072873473
2.7728975 -4.437777 -0.060391702
2.818192 -4.4203568 -0.064212054
2.8568749 -4.4483309 -0.076980591
-3.1017702 -4.3853769 -0.074944139
-3.0716915 -4.3774633 -0.072880119
-3.0400982 -4.383255 -0.081029668
-2.9829788 -4.3947396 -0.0562886
2.777607 -4.3648949 -0.081789754
2.8324025 -4.3664708 -0.070665061
2.8789504 -4.3716993 -0.054584265
2.9283085 -4.3865695 -0.056815863
2.9582171 -4.3725395 -0.054241419
-3.0771329 -4.3364234 -0.073760062
-3.0165596 -4.3330107 -0.081215382
-2.9697599 -4.3157668 -0.073420346
2.7752938 -4.3219914 -0.072566509
2.8112249 -4.3167152 -0.083602726
2.867794 -4.3338938 -0.072174251
-3.077878 -4.2811289 -0.066902429
-3.0443749 -4.289402 -0.092095673
-2.9768567 -4.2537923 -0.074343264
2.7940505 -4.2936211 -0.088484049
2.8230233 -4.269176 -0.055779994
2.9106824 -4.2855444 -0.077771068
-3.1098993 -4.227788 -0.0691787
-3.0675197 -4.2358985 -0.069870323
-3.0361793 -4.2403102 -0.074395001
-2.9710875 -4.2160597 -0.068749875
-2.9388442 -4.225595 -0.097605348
2.7871189 -4.2327528 -0.064475968
2.8291993 -4.2334714 -0.086053699
-3.1010942 -4.1651239 -0.067944765
-3.0732052 -4.1843653 -0.063552618
-3.0143952 -4.1594429 -0.076123595
-2.9851587 -4.1683898 -0.081243515
-2.9444954 -4.1608248 -0.079396486
2.7679992 -4.187582 -0.053650379
2.8352911 -4.1646051 -0.064175487
2.8742485 -4.1611595 -0.067667335
-3.124696 -4.1337523 -0.064893067
-3.0610905 -4.1086898 -0.061457768
-3.0255504 -4.134675 -0.063335642
-2.9716649 -4.1258588 -0.059030954
-2.9131978 -4.1328568 -0.09728241
0.89673996 -4.1038489 -0.084132075
2.7464459 -4.1211758 -0.087821007
2.7559781 -4.1372938 -0.07165277
2.8315096 -4.1239882 -0.070257261
2.8735857 -4.1122532 -0.073797219
-3.9246607 -4.0858197 -0.094934523
-3.8525558 -4.0725842 -0.090815544
-3.0665178 -4.0609589 -0.081762552
-3.007983 -4.0722089 -0.071685128
-2.98069 -4.0735292 -0.07753244
0.77073151 -4.0752401 -0.090073705
2.7774997 -4.0877967 -0.078735799
2.8293414 -4.0735264 -0.06581226
2.8707647 -4.0838585 -0.077163018
2.9173245 -4.0667524 -0.075169951
-3.9465497 -4.0454359 -0.081804872
-3.1428308 -4.0497956 -0.062510371
-3.0502925 -4.0259027 -0.059656695
-3.0199404 -4.0234222 -0.065483585
-2.9761102 -4.017828 -0.063483849
0.87954772 -4.002038 -0.096831083
2.8238983 -4.0270472 -0.060982831
2.857501 -4.0384974 -0.070008546
-3.9121053 -3.9677701 -0.056732178
-3.7183335 -3.9683194 -0.057360291
-3.3837705 -3.9630272 -0.056424022
-3.1299765 -3.9620371 -0.058278918
-3.075429 -3.9708543 -0.082588494
-3.0193126 -3.9548626 -0.074096806
-2.9883289 -3.9668303 -0.073162906
0.71680433 -3.9882419 -0.074038625
0.83138156 -3.9588802 -0.05465734
2.8407674 -3.9746211 -0.072523765
2.8629975 -3.9679565 -0.056169733
2.9098492 -3.979039 -0.071520135
-3.0686715 -3.9355774 -0.063790798
-3.034097 -3.9117792 -0.070950508
-2.974257 -3.9347184 -0.078841701
0.52644223 -3.9374194 -0.065675139
0.59917063 -3.9225864 -0.098041177
2.8289933 -3.9295831 -0.065765619
2.881048 -3.9270313 -0.068594672
-3.7153602 -3.8645489 -0.063248754
-3.1131315 -3.8798072 -0.071993589
-3.081192 -3.8839052 -0.071652651
-3.0278695 -3.8747578 -0.069874868
-2.98367 -3.8840823 -0.087690234
-2.9432988 -3.8596318 -0.069799006
0.8179462 -3.8563068 -0.082761049
2.8311543 -3.8800673 -0.066933587
2.867959 -3.8790426 -0.074408412
2.9004238 -3.8856983 -0.07089752
-3.2244267 -3.8176866 -0.057645559
-3.1159244 -3.831162 -0.076584443
-3.0780017 -3.8309076 -0.073847383
-3.0114658 -3.814291 -0.076615885
-2.9733772 -3.8185177 -0.068252794
-2.9294219 -3.8041399 -0.057725318
2.8167031 -3.8233147 -0.064471841
2.8632188 -3.8195071 -0.08083564
-3.1235116 -3.7724793 -0.078705966
-3.0808644 -3.7735693 -0.07649146
-3.0260746 -3.7729235 -0.075471342
-2.966615 -3.7924116 -0.060972497
-2.9320974 -3.7908528 -0.079482794
0.6230644 -3.7572093 -0.095721722
0.7634306 -3.7967262 -0.065878272
2.8290255 -3.7750359 -0.061051935
2.8702171 -3.783767 -0.07027223
2.9046543 -3.7923429 -0.063861251
3.5698879 -3.7848301 -0.055102706
-3.2635465 -3.7286048 -0.063512802
-3.2144945 -3.7369909 -0.093700051
-3.1791952 -3.706857 -0.059507728
-3.1333804 -3.7298779 -0.083131313
-3.0726492 -3.7369914 -0.071528733
-3.0256166 -3.7440314 -0.081273928
-2.9760525 -3.7380362 -0.078157365
0.58525562 -3.7462251 -0.095429063
1.3118995 -3.706615 -0.09850049
2.8637433 -3.728868 -0.059550144
2.9028859 -3.7389886 -0.050925851
-3.1788175 -3.6535192 -0.082716346
-3.1105909 -3.6676245 -0.074726976
-3.071445 -3.6737149 -0.082208544
-3.0393124 -3.6746564 -0.067663133
0.9796868 -3.6942971 -0.093391418
1.2769356 -3.6693261 -0.066105723
2.8804479 -3.6720142 -0.059959229
2.9098184 -3.6768756 -0.067154229
3.0319567 -3.675036 -0.073567986
3.0701385 -3.6581063 -0.059200168
3.1068387 -3.6682386 -0.078166962
-3.5332036 -3.6213596 -0.095417261
-3.375869 -3.6103487 -0.07272619
-3.3211434 -3.6147449 -0.064604044
-3.2098498 -3.6268611 -0.084046289
-3.161665 -3.6244202 -0.076512352
-3.0675044 -3.6211276 -0.067041591
-3.0435109 -3.6221278 -0.087797314
1.2150595 -3.6399803 -0.074666142
2.8491497 -3.6236436 -0.079675555
2.8879161 -3.6123128 -0.076842308
2.9205792 -3.6145022 -0.068842299
2.9853067 -3.612231 -0.070683867
3.0258176 -3.6087976 -0.07117027
3.10601 -3.6309524 -0.077373505
-3.2685821 -3.5680943 -0.065314651
-3.2179112 -3.5826378 -0.085245565
-3.1230228 -3.5799108 -0.06834352
-3.0775449 -3.5772858 -0.081303418
-3.0315325 -3.5799921 -0.078723326
2.895539 -3.5867739 -0.09540236
2.9332447 -3.5912752 -0.068501562
2.9737105 -3.5943546 -0.064665876
3.0394206 -3.5844901 -0.060766805
3.072752 -3.5731263 -0.070909321
3.1077242 -3.5683756 -0.071297228
3.1810269 -3.5716398 -0.05008018
-3.4652419 -3.5320559 -0.059344053
-3.3601155 -3.5001762 -0.052308321
-3.2090542 -3.5133367 -0.0621804
-3.1285937 -3.5369232 -0.081565738
-3.0771892 -3.5306575 -0.0831545
-3.028173 -3.5217538 -0.083669476
-2.9948964 -3.5183189 -0.050647497
3.0234926 -3.5220897 -0.075438023
3.0826325 -3.5393884 -0.081371903
3.1295722 -3.5169775 -0.062552571
-3.4391742 -3.4709103 -0.093859434
-3.3911881 -3.4736459 -0.091218233
-3.2118025 -3.4953768 -0.081899166
-3.1783562 -3.4810653 -0.053838134
-3.0770621 -3.4652834 -0.074363619
-3.0311058 -3.4874451 -0.075138293
-2.9801066 -3.4861138 -0.093224525
1.4040419 -3.4795997 -0.05460453
2.9590185 -3.4951408 -0.074845493
3.0293345 -3.4645309 -0.089997053
3.0711386 -3.4824991 -0.058963895
-3.4331031 -3.4108982 -0.090616107
-3.312706 -3.4423885 -0.085176229
-3.218657 -3.4471257 -0.079969645
-3.1628118 -3.4059947 -0.055330396
-3.1192694 -3.4245024 -0.066233635
-3.0831954 -3.4302678 -0.08969903
-3.0103712 -3.4220543 -0.061689258
-2.935334 -3.4062934 -0.054364443
3.0701289 -3.4247243 -0.094076991
3.1170101 -3.4322267 -0.06004715
3.1648567 -3.431253 -0.067406952
-3.0700359 -3.3881886 -0.072269797
-3.0100045 -3.3752007 -0.071069896
-2.9888592 -3.3718081 -0.065823153
1.3708444 -3.3875036 -0.056643963
2.9928203 -3.3780022 -0.056611657
3.0233703 -3.3773024 -0.066338062
3.1140232 -3.3620634 -0.090513587
-3.0854034 -3.3248808 -0.067016125
-3.0297406 -3.3244057 -0.073531277
-2.9879177 -3.3291891 -0.074860334
3.0635982 -3.3496282 -0.081684351
3.1125865 -3.3212273 -0.085068822
3.168406 -3.3424983 -0.095691085
3.2029669 -3.3414214 -0.093123913
-3.0708737 -3.2655473 -0.077793047
-3.0363107 -3.2866681 -0.064940989
-2.9650509 -3.2679935 -0.073106408
3.0072107 -3.2670593 -0.098620534
3.0826919 -3.2837245 -0.081762791
3.1193917 -3.2825119 -0.066991806
3.1771264 -3.2814231 -0.090758443
-3.0779662 -3.2279525 -0.081016213
-3.0156002 -3.2380316 -0.06688863
-2.9923351 -3.2095742 -0.063019902
3.0077748 -3.2363183 -0.070898056
3.0768645 -3.2376947 -0.098537207
3.1133368 -3.2341981 -0.08255434
3.158534 -3.2224998 -0.070735693
-3.3731341 -3.1991155 -0.05111587
-3.3343532 -3.1697607 -0.098251224
-3.2922404 -3.1750698 -0.064313769
-3.0817766 -3.1607761 -0.075085819
-3.0450535 -3.192065 -0.057694793
-2.9871743 -3.1631908 -0.095340133
1.6155472 -3.1516743 -0.093833804
3.0749722 -3.1929669 -0.084311128
3.1683419 -3.16645 -0.071655869
-3.2578971 -3.1265984 -0.077952504
-3.0203571 -3.1287749 -0.072315298
-2.9825864 -3.1328769 -0.07986784
0.52105808 -3.1004136 -0.075522184
0.57217437 -3.1292734 -0.051113725
3.0761862 -3.119597 -0.055987954
3.1265259 -3.1367531 -0.08125978
3.1848207 -3.1380353 -0.077985227
3.2271342 -3.129436 -0.055321693
3.2701306 -3.1159048 -0.090477228
-3.0313923 -3.0824273 -0.080900699
-2.9924579 -3.0779462 -0.06664367
0.48951256 -3.0692189 -0.068657041
1.5506891 -3.0765045 -0.090196609
3.0922186 -3.0738041 -0.054468274
3.1877785 -3.0741401 -0.05464673
3.2965798 -3.094969 -0.089898705
-3.0648017 -3.0358379 -0.071783066
-3.0292158 -3.0165813 -0.07050208
-2.9826257 -3.0147357 -0.085940659
-2.9333386 -3.0109956 -0.074007347
1.2310063 -3.0122678 -0.076568842
1.3611789 -3.0111051 -0.081734419
1.4945189 -3.0164065 -0.087116718
3.075031 -3.0339332 -0.080545038
3.1306808 -3.031426 -0.061253008
3.1546543 -3.0367124 -0.099533319
-3.1004374 -2.9915757 -0.088941336
-3.0549369 -2.9820819 -0.071660459
-3.0154662 -2.9749875 -0.083805621
-2.984221 -2.9630167 -0.079484895
-2.9400182 -2.9704583 -0.073688984
1.1998605 -2.9995606 -0.075150609
1.3157815 -2.9671433 -0.079309821
1.378379 -2.9914732 -0.082143426
1.4240491 -2.9645529 -0.083583415
3.0724638 -2.9726887 -0.077887803
3.1264098 -2.9735696 -0.0690547
-3.0605884 -2.9138665 -0.075308144
-3.0312877 -2.9239151 -0.080309637
-2.9770362 -2.9108973 -0.068634689
-2.9337468 -2.9326439 -0.072292387
3.0793343 -2.9137752 -0.081107318
3.1588926 -2.9064074 -0.057748027
3.203275 -2.9028516 -0.0782758
-3.0724788 -2.8722038 -0.071708798
-3.0144987 -2.8714321 -0.08541128
-2.9780662 -2.867465 -0.061883807
3.2416935 -2.8883338 -0.071737647
3.2803545 -2.8613515 -0.066797972
-3.1047616 -2.8319402 -0.097603917
-3.0221987 -2.8344758 -0.081845522
-2.9551108 -2.8030078 -0.057551146
3.1377218 -2.8411961 -0.056138076
3.1826572 -2.810214 -0.07731986
3.2259531 -2.835602 -0.068280458
3.3015552 -2.8051322 -0.088211142
-3.0704393 -2.7515931 -0.075423002
-3.024509 -2.7733605 -0.067314684
-2.961782 -2.7816076 -0.076110467
-2.9317164 -2.7761335 -0.077225387
3.1701729 -2.7719765 -0.075245097
3.2156801 -2.7724314 -0.071614146
-3.0557785 -2.7156649 -0.098273873
-3.0265393 -2.7425816 -0.096158147
-2.9245701 -2.7200575 -0.062864549
3.1231697 -2.7029998 -0.065355778
3.1732221 -2.7331791 -0.087832272
3.2006705 -2.7174978 -0.069922805
-3.0547867 -2.6792753 -0.097872019
-3.0314794 -2.6633596 -0.068300724
-2.9845459 -2.6733301 -0.092449665
-2.9176712 -2.6845963 -0.081858695
0.87503588 -2.6525252 -0.059913993
1.1721072 -2.6694169 -0.098188281
3.1645274 -2.6831038 -0.080182493
-3.0122681 -2.6115646 -0.063812494
-2.9615321 -2.6267545 -0.051419377
-2.9113653 -2.6265385 -0.078249037
-2.8994823 -2.6149125 -0.064483792
0.8209585 -2.6124377 -0.054018497
0.86849332 -2.6157827 -0.088065505
0.96231103 -2.6449418 -0.088790059
1.0318385 -2.6313317 -0.077522479
1.0632114 -2.6116433 -0.069654226
1.1176853 -2.6414382 -0.08434093
3.0921156 -2.62306 -0.079474092
3.1643987 -2.6405268 -0.07306236
-3.0216024 -2.5660782 -0.072435796
-2.965168 -2.5864804 -0.084827304
3.1316247 -2.5776649 -0.063074127
-3.0736947 -2.5196018 -0.067276359
-3.031363 -2.5102322 -0.067555666
-2.9845779 -2.5477133 -0.091057301
-2.8818669 -2.5318031 -0.060818866
3.1432209 -2.5232949 -0.072871089
-3.1173844 -2.4866805 -0.077955842
-3.0099564 -2.465307 -0.05273366
-2.8578877 -2.4621129 -0.056285694
3.1627929 -2.4872129 -0.072312653
-3.0853419 -2.4197052 -0.057863235
-2.969028 -2.4099531 -0.075584769
-2.8800693 -2.4200613 -0.059361435
3.1429784 -2.4173198 -0.064288378
-3.2993574 -2.3776846 -0.067277625
-3.2213168 -2.3599892 -0.055394664
-3.0733128 -2.3985782 -0.084183693
-3.0169551 -2.3806391 -0.080651507
-2.9651718 -2.3763742 -0.067238308
-2.8566184 -2.3548706 -0.054959297
3.1184444 -2.3836169 -0.060780078
3.1660898 -2.3777828 -0.084201336
-3.015579 -2.3213186 -0.077415891
-2.9671326 -2.3052828 -0.074920416
-2.8764746 -2.3427312 -0.057980195
3.1284859 -2.3243632 -0.098271787
3.1614146 -2.3062 -0.081875205
-3.1854098 -2.295269 -0.078401163
-2.999979 -2.2603657 -0.082844615
3.141046 -2.2767291 -0.077882886
3.1685486 -2.2672868 -0.072751641
-3.0128884 -2.223866 -0.078358531
-2.9847956 -2.2494671 -0.076033115
-2.9266171 -2.2180808 -0.064622715
3.1161256 -2.2202091 -0.083046526
3.1823668 -2.2415619 -0.06214416
-3.0258021 -2.1787207 -0.074476093
-2.9596548 -2.1770115 -0.066937014
-2.9150157 -2.1828811 -0.062413946
3.0923131 -2.1728868 -0.060089409
3.115912 -2.1532354 -0.085818887
3.1771894 -2.1756434 -0.064966142
3.2092602 -2.182272 -0.094177783
-3.0248516 -2.1248002 -0.080914259
-2.9549718 -2.1439521 -0.085202038
3.1682837 -2.1263857 -0.080168724
-3.0132287 -2.0787749 -0.081296682
-2.9458196 -2.0888667 -0.072197318
3.1616893 -2.0706704 -0.075892746
-3.0172973 -2.0108657 -0.090701342
-2.966629 -2.0256705 -0.075872213
-2.9259644 -2.0338356 -0.085228123
-0.35092887 -2.0142901 -0.087352514
-0.32179707 -2.0063102 -0.089121044
3.1916561 -2.0283177 -0.068961933
3.2403612 -2.0112329 -0.057295799
-2.985074 -1.9710959 -0.083532237
3.1945162 -1.9976845 -0.086142421
3.2136416 -1.9831657 -0.083516955
3.2577033 -1.9631478 -0.079916567
-2.9589658 -1.9074335 -0.053392053
-2.9352236 -1.9309239 -0.099279836
3.2348349 -1.9140812 -0.077977002
-2.9502332 -1.863483 -0.067404747
-2.9323916 -1.8541738 -0.08384347
-2.8772397 -1.8599695 -0.08817257
3.2177515 -1.8583708 -0.077634543
-2.9291835 -1.8370409 -0.090470336
-2.8599567 -1.8416972 -0.077753067
3.1981566 -1.8293021 -0.056269169
3.2127678 -1.8075374 -0.065308273
-2.9088843 -1.771259 -0.067462415
-2.8628387 -1.7803617 -0.089075446
3.2360611 -1.7816401 -0.078705251
-2.9506278 -1.7047346 -0.060488522
-2.9387388 -1.7175331 -0.072811402
-2.8968771 -1.7193116 -0.097163737
3.227854 -1.7174089 -0.067289948
3.2562416 -1.7474858 -0.080094934
-2.9718616 -1.6690574 -0.087381721
-2.8736734 -1.6696341 -0.084430397
3.1750541 -1.6836779 -0.064762563
3.2506447 -1.694469 -0.09343183
-2.955173 -1.6337446 -0.073306084
-2.9462419 -1.6189363 -0.094395638
-2.8884706 -1.6464579 -0.065457523
3.1849546 -1.6333623 -0.054708064
3.2212605 -1.6120478 -0.088511884
-2.9251037 -1.5859735 -0.067007184
3.2260511 -1.574477 -0.095445633
-2.933337 -1.5209316 -0.066825509
3.2539015 -1.5421565 -0.086314917
-2.9789374 -1.4845362 -0.066468835
-2.8309004 -1.4761083 -0.08883059
3.2699955 -1.4872041 -0.073260933
-2.8310151 -1.4030719 -0.05059284
3.2448878 -1.4195472 -0.094714403
3.2739246 -1.4334631 -0.062749684
-3.0275307 -1.3640772 -0.064302564
-2.7938268 -1.3602185 -0.064601898
3.2712564 -1.3759332 -0.088034838
-2.8764753 -1.3211064 -0.087687477
-2.8153176 -1.3352795 -0.079728305
-2.8787303 -1.2726187 -0.081797898
-2.8563375 -1.1943265 -0.082495868
-2.9037502 -1.1132509 -0.087991655
-2.8680627 -1.0881121 -0.095854998
2.8642128 -5.6574731 -0.046433836
2.9122214 -5.642386 -0.033934802
2.9753966 -5.6224012 -0.017462641
2.7718818 -5.5655928 -0.0028076768
2.6998069 -5.5184383 -0.032557964
-3.1534231 -5.4506431 -0.032750845
-3.1309886 -5.4914985 -0.032993793
2.9424605 -5.4669533 -0.032693386
2.9622874 -5.4867764 -0.039058134
2.722075 -5.4242373 -0.016531348
2.7562542 -5.4057937 -0.032209158
2.8183677 -5.4051876 -0.032327652
2.8637736 -5.4051528 -0.032326221
-3.1634958 -5.389895 -0.032388449
2.6841269 -5.3786869 -0.017797232
2.7758992 -5.385767 -0.022856116
2.805212 -5.3721247 -0.017602146
2.9437201 -5.3852081 -0.032205582
-3.1732059 -5.3302512 -0.032033205
2.7897081 -5.3273597 -0.022135139
2.8306429 -5.3014221 -0.01902914
2.8580875 -5.3373075 -0.018849373
-3.5209367 -5.2871618 -0.0077705383
-3.1275067 -5.2726121 -0.018792391
2.849107 -5.2696724 -0.047623158
-3.5280743 -5.2294559 -0.0074543953
-3.1923268 -5.2153811 -0.03134799
2.7826941 -5.2312393 -0.01936686
2.8432875 -5.2001939 -0.049302608
2.8818674 -5.2198262 -0.024308264
-3.3591614 -5.1731172 -0.0078144073
-3.1204772 -5.1712894 -0.025395989
-3.0574658 -5.1519971 -0.04863739
-3.0136085 -5.1622353 -0.026031733
-2.997896 -5.183116 -0.0067665577
2.8219931 -5.1909046 -0.013627231
2.9106398 -5.1520433 -0.010957003
-3.5150073 -5.1433005 -0.017637253
-3.470571 -5.1419158 -0.014336109
-3.4129329 -5.1205001 -0.0076961517
-3.3563528 -5.1002088 -0.0012655258
-3.2018404 -5.1105876 -0.032648087
-3.1689227 -5.1280088 -0.032565832
-3.1134298 -5.101594 -0.014223337
2.7982421 -5.1397157 -0.022902988
-3.3665569 -5.0961857 -0.042382002
-3.3047554 -5.0773973 -0.015251398
-3.2445865 -5.0847468 -0.011962891
-3.1347227 -5.0840588 -0.010061026
-3.0722065 -5.0791912 -0.012363195
-3.0329051 -5.097724 -0.032629997
2.7909713 -5.0509634 -0.030625343
2.8082838 -5.062665 -0.023947664
-3.3602498 -5.0211139 -0.032324076
-3.1127827 -5.0231099 -0.015984893
-3.0272188 -5.0267324 -0.046216443
2.7864847 -5.0214949 -0.026392698
-3.1443396 -4.9999356 -0.030061722
2.8122425 -4.9697194 -0.025470257
2.8518977 -4.9715953 -0.011746764
-3.3422747 -4.9304848 -0.019452333
-3.1532013 -4.9480247 -0.029752135
-3.0916042 -4.9417453 -0.030629992
-3.0470266 -4.9236598 -0.011537194
-3.2048678 -4.8688745 -0.014133215
-3.1626177 -4.8983212 -0.029455423
-3.107866 -4.8886561 -0.044805408
-3.0855672 -4.8606358 -0.022034764
2.7480133 -4.8772154 -0.029179573
2.769253 -4.8712277 -0.026987448
2.8304482 -4.8847537 -0.010196686
-3.1757817 -4.8306217 -0.04074505
-3.1244936 -4.8390703 -0.04332149
-2.9677649 -4.8297396 -0.0085812807
2.720763 -4.8283405 -0.026233487
2.7667232 -4.8227491 -0.038044035
2.8160651 -4.830337 -0.03547458
-3.2104468 -4.7895479 -0.043175459
-3.1814079 -4.7720313 -0.030257106
-3.0892897 -4.7757998 -0.033900559
-2.9862351 -4.7720156 -0.024856448
2.7305481 -4.7724223 -0.029737154
2.7768755 -4.7803831 -0.017775085
2.8200293 -4.7567525 -0.028459072
-3.2112293 -4.7230568 -0.030073285
-3.1784444 -4.7381582 -0.028500319
-3.1084094 -4.7358313 -0.027454376
2.6918089 -4.7322197 -0.022867754
2.7292523 -4.7260885 -0.026583908
2.7654266 -4.7181792 -0.031005846
2.8263016 -4.7422438 -0.029156208
-3.2178841 -4.6779227 -0.041743755
-3.1874321 -4.6928744 -0.028230548
-3.0244296 -4.6573749 -0.038317859
-2.9954009 -4.6960149 -0.042106092
-2.945034 -4.6938176 -0.0087153912
2.7283545 -4.6755648 -0.026940404
2.769115 -4.6825905 -0.030113956
2.8146858 -4.6682415 -0.024670333
-3.2102251 -4.6268649 -0.024767995
-3.0801625 -4.6232228 -0.026005566
-3.0170162 -4.6034269 -0.016501009
-2.9967992 -4.6339788 -0.012622833
2.7409034 -4.6165104 -0.020278506
2.7741551 -4.6353955 -0.020003993
2.8260517 -4.6135716 -0.026888192
-3.1447406 -4.5735383 -0.027517438
-3.0684991 -4.5899072 -0.026369095
-3.0213253 -4.5693207 -0.012615765
-2.9979281 -4.5950861 -0.03004396
-2.9174118 -4.5871658 -0.0066189766
-2.8229277 -4.5775256 -0.048704252
2.7345693 -4.5625973 -0.025692105
2.7747877 -4.5803008 -0.027982913
2.8221378 -4.5756721 -0.027418684
2.8639421 -4.5618563 -0.019512039
-3.1550694 -4.5447078 -0.036353707
-3.1436315 -4.5242558 -0.034247339
-3.0821326 -4.5258794 -0.030701319
-3.027781 -4.532361 -0.022832632
-2.9283383 -4.5431972 -0.0048630238
2.728508 -4.5340352 -0.046302915
2.7803636 -4.5143719 -0.02407337
2.8328528 -4.5344796 -0.022341575
2.865937 -4.5121651 -0.025925457
-3.1759076 -4.4979138 -0.038248062
-3.1069069 -4.4725256 -0.029785931
-3.0653205 -4.4621053 -0.029435456
-2.9864759 -4.4742823 -0.021518216
2.7414424 -4.4968648 -0.021585822
2.7751758 -4.4751244 -0.033397079
2.816658 -4.4707012 -0.021638624
2.8792078 -4.4807711 -0.029049059
-3.0562704 -4.4292479 -0.031962633
-3.0248818 -4.4229856 -0.023705333
-2.9957075 -4.4338126 -0.021006346
-2.9382679 -4.4416676 -0.024364591
2.7905464 -4.4304047 -0.02635175
2.8372374 -4.4326744 -0.031363964
2.8950555 -4.4110146 -0.028354287
2.9352112 -4.4237137 -0.02487741
2.9626403 -4.405405 -0.0017319918
-3.1516509 -4.3868427 -0.037170649
-3.0764744 -4.3729591 -0.021753289
-3.041666 -4.3673058 -0.012204699
-2.9655833 -4.3682857 -0.01061213
-2.9295502 -4.368772 -0.020058513
2.7825241 -4.3856249 -0.014093086
2.8340046 -4.3689647 -0.027275493
2.8733695 -4.3779144 -0.016570726
2.9272437 -4.3617563 -0.02657795
2.9650121 -4.3954687 -0.025821567
-3.0716178 -4.3345213 -0.035727382
-3.0095406 -4.3307276 -0.035246357
-2.955081 -4.3144975 -0.019473195
-2.9266477 -4.3287334 -0.017043769
2.7792625 -4.3447981 -0.023576379
2.8121161 -4.3288827 -0.027827054
2.8578517 -4.3465571 -0.01484859
2.9131484 -4.3407278 -0.0041142702
-3.1240225 -4.2500062 -0.026127696
-3.0700073 -4.2744541 -0.028448701
-3.0199981 -4.276597 -0.019429609
2.7854629 -4.298584 -0.037549734
2.8167264 -4.2693048 -0.023512334
2.8642492 -4.2802038 -0.021975063
2.9122777 -4.2895136 -0.0064013302
-3.1127732 -4.2424927 -0.024104714
-3.0919869 -4.2182736 -0.036433816
-3.0171618 -4.228394 -0.025830686
-2.9273205 -4.2448416 -0.0010080338
2.7769904 -4.2259226 -0.029757051
2.8284538 -4.2357492 -0.030612946
2.8784211 -4.2218914 -0.026203623
3.7434294 -4.204525 -0.018279076
-3.1743999 -4.1703033 -0.026162028
-3.1166637 -4.1705389 -0.023719847
-3.0655091 -4.1964445 -0.0040447712
-3.0364428 -4.172143 -0.0097110868
-2.9815383 -4.1763482 -0.028707381
2.8711271 -4.1878958 -0.024716269
3.7605696 -4.161716 -0.011966944
-3.1937671 -4.1237154 -0.025660634
-3.1428635 -4.1028838 -0.00080645084
-3.066421 -4.1323123 -0.035448432
-3.0052352 -4.1183829 -0.010960354
-2.9847369 -4.1363211 -0.030587781
2.7679265 -4.1285439 -0.022637168
2.831284 -4.1335182 -0.037407711
2.8639483 -4.1249456 -0.022345524
3.7316666 -4.1096926 -0.047034025
-3.0185714 -4.0797338 -0.017828988
-2.981045 -4.0785022 -0.032341249
2.7891564 -4.0887423 -0.040261745
2.8357069 -4.0784912 -0.021740049
2.8700919 -4.0768833 -0.019057672
2.9178131 -4.0965042 -0.033209801
3.6643705 -4.0901351 -0.045706987
3.7486374 -4.0681744 -0.040605545
-3.9876833 -4.0228992 -0.033655882
-3.4313273 -4.0379734 -0.039695501
-3.3516166 -4.0121694 -0.031785131
-3.1335306 -4.0355549 -0.0089380741
-3.0658531 -4.0203347 -0.02318741
-3.0145025 -4.015615 -0.032816902
-2.9894097 -4.0224838 -0.014930747
0.723472 -4.0408564 -0.047515988
2.830286 -4.0327263 -0.028053962
2.8672309 -4.0148702 -0.026170965
2.9206734 -4.0287857 -0.025660649
-3.8229036 -3.9722705 -0.018154502
-3.0736113 -3.9679079 -0.026070526
-3.0248556 -3.9790566 -0.043904215
-2.9787707 -3.9716167 -0.014237067
0.5259822 -3.9608192 -0.01665622
0.63476807 -3.9541705 -0.032525897
0.67319351 -3.9668269 -0.034556031
2.8384285 -3.9733882 -0.030545712
2.8800883 -3.9673569 -0.013409636
2.930006 -3.9809539 -0.039089195
3.715729 -3.9687395 -0.026869774
-3.9139709 -3.9293625 -0.044288993
-3.8336234 -3.9221091 -0.00238657
-3.7603724 -3.9464185 -0.010188222
-3.3948812 -3.923353 -0.0038090944
-3.2998371 -3.9311037 -0.046280146
-3.1445708 -3.9174049 -0.016462326
-3.0807958 -3.9139268 -0.0342094
-3.0182366 -3.9103794 -0.029846907
-2.9712768 -3.9235811 -0.012704089
0.57768059 -3.9362121 -0.029661536
2.8426256 -3.9300864 -0.032361388
2.8871956 -3.9326048 -0.019278202
2.9038346 -3.9304883 -0.010366708
-3.3741031 -3.8819313 -0.030182481
-3.1118877 -3.8699253 -0.028709888
-3.0771594 -3.8652482 -0.014433265
-3.0252049 -3.8715878 -0.016903082
-2.9733865 -3.8756206 -0.026028737
-2.9493258 -3.8796542 -0.03102529
2.8887515 -3.8828454 -0.031767219
2.9061465 -3.8779087 -0.022244781
-3.1807141 -3.8389831 -0.010392845
-3.125499 -3.8239841 -0.004845798
-3.0821791 -3.8226824 -0.03507334
-3.033145 -3.8138518 -0.024654597
-2.9912853 -3.8261652 -0.026481815
2.8417923 -3.8352473 -0.033311844
2.8699493 -3.827035 -0.037486337
2.9126515 -3.8386164 -0.02234539
3.3954802 -3.817627 -0.012101173
-3.2655072 -3.7844155 -0.039834857
-3.1587281 -3.7799692 -0.0016076565
-3.1182351 -3.7689161 -0.032111049
-3.0847287 -3.7816777 -0.028472174
-3.0412903 -3.7815182 -0.005763948
-2.9677725 -3.7694032 -0.033363342
2.8362751 -3.776047 -0.048730969
2.8715162 -3.7728777 -0.028907584
2.9214973 -3.776201 -0.021565944
-3.6423626 -3.7462077 -0.02389431
-3.2001989 -3.7195165 -0.045486212
-3.1632073 -3.74562 -0.016945243
-3.1214516 -3.7253242 -0.019670501
-3.083674 -3.7140617 -0.037027091
-3.0247021 -3.7190428 -0.026492864
-2.9800727 -3.7336793 -0.028590035
-2.925416 -3.7354996 -0.020655803
1.3656834 -3.7276483 -0.04827702
2.8348806 -3.735877 -0.035963655
2.8790851 -3.7327654 -0.013261246
2.9194746 -3.7269278 -0.021038383
2.9575214 -3.7214084 -0.020861745
3.0731046 -3.7208395 -0.013104677
3.4558742 -3.703866 -0.024024129
-3.6258047 -3.6898494 -0.0051101446
-3.5075927 -3.6640322 -0.034531832
-3.1677227 -3.6854115 -0.022218466
-3.1162643 -3.673733 -0.031311035
-3.0818486 -3.6724513 -0.02182148
-3.0406451 -3.6734157 -0.022252858
-2.9939232 -3.672332 -0.011213839
